-796.000000 -1012.113248 931.361730
-796.000000 -1013.507116 929.927460
-796.000000 -1014.900985 928.493190
-796.000000 -1016.294853 927.058919
-796.000000 -1017.688721 925.624649
-796.000000 -1019.082590 924.190379
-796.000000 -1020.476458 922.756109
-796.000000 -1021.870326 921.321838
-796.000000 -1023.264194 919.887568
-796.000000 -1024.658063 918.453298
-796.000000 -1026.051931 917.019027
-796.000000 -1027.445799 915.584757
-796.000000 -1028.839668 914.150487
-796.000000 -1030.233536 912.716217
-796.000000 -1031.627404 911.281946
-796.000000 -1033.021272 909.847676
-796.000000 -1034.415141 908.413406
-796.000000 -1035.809009 906.979136
-796.000000 -1037.202877 905.544865
-796.000000 -1038.596746 904.110595
-796.000000 -1039.990614 902.676325
-796.000000 -1041.384482 901.242055
-796.000000 -1042.778350 899.807784
-796.000000 -1044.172219 898.373514
-796.000000 -1045.566087 896.939244
-796.000000 -1046.959955 895.504973
-796.000000 -1048.353824 894.070703
-796.000000 -1049.747692 892.636433
-796.000000 -1051.141560 891.202163
-796.000000 -1052.535429 889.767892
-796.000000 -1053.929297 888.333622
-796.000000 -1055.323165 886.899352
-796.000000 -1056.717033 885.465082
-796.000000 -1058.110902 884.030811
-796.000000 -1059.504770 882.596541
-796.000000 -1060.898638 881.162271
-796.000000 -1062.292507 879.728001
-796.000000 -1063.686375 878.293730
-796.000000 -1065.080243 876.859460
-796.000000 -1066.474111 875.425190
-796.000000 -1067.867980 873.990919
-796.000000 -1069.261848 872.556649
-796.000000 -1070.655716 871.122379
-796.000000 -1072.049585 869.688109
-796.000000 -1073.443453 868.253838
-796.000000 -1074.837321 866.819568
-796.000000 -1076.231189 865.385298
-796.000000 -1077.625058 863.951028
-796.000000 -1079.018926 862.516757
-796.000000 -1080.412794 861.082487
-796.000000 -1081.806663 859.648217
-796.000000 -1083.200531 858.213947
-796.000000 -1084.594399 856.779676
-796.000000 -1085.988267 855.345406
-796.000000 -1087.382136 853.911136
-796.000000 -1088.776004 852.476865
-796.000000 -1090.169872 851.042595
-796.000000 -1091.563741 849.608325
-796.000000 -1092.957609 848.174055
-796.000000 -1094.351477 846.739784
-796.000000 -1095.745345 845.305514
-796.000000 -1097.139214 843.871244
-796.000000 -1098.533082 842.436974
-796.000000 -1099.926950 841.002703
-796.000000 -1101.320819 839.568433
-796.000000 -1102.714687 838.134163
-796.000000 -1104.108555 836.699893
-796.000000 -1105.502423 835.265622
-796.000000 -1106.896292 833.831352
-796.000000 -1108.290160 832.397082
-796.000000 -1109.684028 830.962811
-796.000000 -1111.077897 829.528541
-796.000000 -1112.471765 828.094271
-796.000000 -1113.865633 826.660001
-796.000000 -1115.259501 825.225730
-796.000000 -1116.653370 823.791460
-796.000000 -1118.047238 822.357190
-796.000000 -1119.441106 820.922920
-796.000000 -1120.834975 819.488649
-796.000000 -1122.228843 818.054379
-796.000000 -1123.622711 816.620109
-796.000000 -1125.016579 815.185839
-796.000000 -1126.410448 813.751568
-796.000000 -1127.804316 812.317298
-796.000000 -1129.198184 810.883028
-796.000000 -1130.592053 809.448757
-796.000000 -1132.000000 808.000000
-796.000000 -1132.000000 808.000000
-797.318705 -1130.496548 807.974518
-798.637411 -1128.993097 807.949036
-799.956116 -1127.489645 807.923553
-801.274822 -1125.986194 807.898071
-802.593527 -1124.482742 807.872589
-803.912233 -1122.979290 807.847107
-805.230938 -1121.475839 807.821624
-806.549643 -1119.972387 807.796142
-807.868349 -1118.468936 807.770660
-809.187054 -1116.965484 807.745178
-810.505760 -1115.462033 807.719695
-811.824465 -1113.958581 807.694213
-813.143170 -1112.455129 807.668731
-814.461876 -1110.951678 807.643249
-815.780581 -1109.448226 807.617767
-817.099287 -1107.944775 807.592284
-818.417992 -1106.441323 807.566802
-819.736698 -1104.937871 807.541320
-821.055403 -1103.434420 807.515838
-822.374108 -1101.930968 807.490355
-823.692814 -1100.427517 807.464873
-825.011519 -1098.924065 807.439391
-826.330225 -1097.420613 807.413909
-827.648930 -1095.917162 807.388426
-828.967635 -1094.413710 807.362944
-830.286341 -1092.910259 807.337462
-831.605046 -1091.406807 807.311980
-832.923752 -1089.903356 807.286498
-834.242457 -1088.399904 807.261015
-835.561163 -1086.896452 807.235533
-836.879868 -1085.393001 807.210051
-838.198573 -1083.889549 807.184569
-839.517279 -1082.386098 807.159086
-840.835984 -1080.882646 807.133604
-842.154690 -1079.379194 807.108122
-843.473395 -1077.875743 807.082640
-844.792100 -1076.372291 807.057157
-846.110806 -1074.868840 807.031675
-847.429511 -1073.365388 807.006193
-848.748217 -1071.861936 806.980711
-850.066922 -1070.358485 806.955229
-851.385628 -1068.855033 806.929746
-852.704333 -1067.351582 806.904264
-854.023038 -1065.848130 806.878782
-855.341744 -1064.344679 806.853300
-856.660449 -1062.841227 806.827817
-857.979155 -1061.337775 806.802335
-859.297860 -1059.834324 806.776853
-860.616565 -1058.330872 806.751371
-861.935271 -1056.827421 806.725888
-863.253976 -1055.323969 806.700406
-864.572682 -1053.820517 806.674924
-865.891387 -1052.317066 806.649442
-867.210093 -1050.813614 806.623960
-868.528798 -1049.310163 806.598477
-869.847503 -1047.806711 806.572995
-871.166209 -1046.303260 806.547513
-872.484914 -1044.799808 806.522031
-873.803620 -1043.296356 806.496548
-875.122325 -1041.792905 806.471066
-876.441030 -1040.289453 806.445584
-877.759736 -1038.786002 806.420102
-879.078441 -1037.282550 806.394619
-880.397147 -1035.779098 806.369137
-881.715852 -1034.275647 806.343655
-883.034558 -1032.772195 806.318173
-884.353263 -1031.268744 806.292691
-885.671968 -1029.765292 806.267208
-886.990674 -1028.261840 806.241726
-888.309379 -1026.758389 806.216244
-889.628085 -1025.254937 806.190762
-890.946790 -1023.751486 806.165279
-892.265496 -1022.248034 806.139797
-893.584201 -1020.744583 806.114315
-894.902906 -1019.241131 806.088833
-896.221612 -1017.737679 806.063350
-897.540317 -1016.234228 806.037868
-898.859023 -1014.730776 806.012386
-900.177728 -1013.227325 805.986904
-901.496433 -1011.723873 805.961422
-902.815139 -1010.220421 805.935939
-904.133844 -1008.716970 805.910457
-905.452550 -1007.213518 805.884975
-906.771255 -1005.710067 805.859493
-908.089961 -1004.206615 805.834010
-909.408666 -1002.703163 805.808528
-910.727371 -1001.199712 805.783046
-912.046077 -999.696260 805.757564
-913.364782 -998.192809 805.732082
-914.683488 -996.689357 805.706599
-916.002193 -995.185906 805.681117
-917.320898 -993.682454 805.655635
-918.639604 -992.179002 805.630153
-919.958309 -990.675551 805.604670
-921.277015 -989.172099 805.579188
-922.595720 -987.668648 805.553706
-923.914426 -986.165196 805.528224
-925.233131 -984.661744 805.502741
-926.551836 -983.158293 805.477259
-927.870542 -981.654841 805.451777
-929.189247 -980.151390 805.426295
-930.507953 -978.647938 805.400813
-931.826658 -977.144486 805.375330
-933.145363 -975.641035 805.349848
-934.464069 -974.137583 805.324366
-935.782774 -972.634132 805.298884
-937.101480 -971.130680 805.273401
-938.420185 -969.627229 805.247919
-939.738891 -968.123777 805.222437
-941.057596 -966.620325 805.196955
-942.376301 -965.116874 805.171472
-943.695007 -963.613422 805.145990
-945.013712 -962.109971 805.120508
-946.332418 -960.606519 805.095026
-947.651123 -959.103067 805.069544
-948.969828 -957.599616 805.044061
-950.288534 -956.096164 805.018579
-951.607239 -954.592713 804.993097
-952.925945 -953.089261 804.967615
-954.244650 -951.585809 804.942132
-955.563356 -950.082358 804.916650
-956.882061 -948.578906 804.891168
-958.200766 -947.075455 804.865686
-959.519472 -945.572003 804.840203
-960.838177 -944.068552 804.814721
-962.156883 -942.565100 804.789239
-963.475588 -941.061648 804.763757
-964.794294 -939.558197 804.738275
-966.112999 -938.054745 804.712792
-967.431704 -936.551294 804.687310
-968.750410 -935.047842 804.661828
-970.069115 -933.544390 804.636346
-971.387821 -932.040939 804.610863
-972.706526 -930.537487 804.585381
-974.025231 -929.034036 804.559899
-975.343937 -927.530584 804.534417
-976.662642 -926.027132 804.508934
-977.981348 -924.523681 804.483452
-979.300053 -923.020229 804.457970
-980.618759 -921.516778 804.432488
-981.937464 -920.013326 804.407006
-983.256169 -918.509875 804.381523
-984.574875 -917.006423 804.356041
-985.893580 -915.502971 804.330559
-987.212286 -913.999520 804.305077
-988.530991 -912.496068 804.279594
-989.849696 -910.992617 804.254112
-991.168402 -909.489165 804.228630
-992.487107 -907.985713 804.203148
-993.805813 -906.482262 804.177665
-995.124518 -904.978810 804.152183
-996.443224 -903.475359 804.126701
-997.761929 -901.971907 804.101219
-999.080634 -900.468455 804.075737
-1000.399340 -898.965004 804.050254
-1003.000000 -896.000000 804.000000
-1003.000000 -896.000000 804.000000
-1003.000000 -894.000000 804.000000
-1003.000000 -892.000000 804.000000
-1003.000000 -890.000000 804.000000
-1003.000000 -888.000000 804.000000
-1003.000000 -886.000000 804.000000
-1003.000000 -884.000000 804.000000
-1003.000000 -882.000000 804.000000
-1003.000000 -880.000000 804.000000
-1003.000000 -878.000000 804.000000
-1003.000000 -876.000000 804.000000
-1003.000000 -874.000000 804.000000
-1003.000000 -872.000000 804.000000
-1003.000000 -870.000000 804.000000
-1003.000000 -868.000000 804.000000
-1003.000000 -866.000000 804.000000
-1003.000000 -864.000000 804.000000
-1003.000000 -862.000000 804.000000
-1003.000000 -860.000000 804.000000
-1003.000000 -856.000000 804.000000
-1003.000000 -856.000000 804.000000
-1003.000000 -854.000000 804.000000
-1003.000000 -852.000000 804.000000
-1003.000000 -850.000000 804.000000
-1003.000000 -848.000000 804.000000
-1003.000000 -846.000000 804.000000
-1003.000000 -844.000000 804.000000
-1003.000000 -842.000000 804.000000
-1003.000000 -840.000000 804.000000
-1003.000000 -838.000000 804.000000
-1003.000000 -836.000000 804.000000
-1003.000000 -834.000000 804.000000
-1003.000000 -832.000000 804.000000
-1003.000000 -830.000000 804.000000
-1003.000000 -828.000000 804.000000
-1003.000000 -826.000000 804.000000
-1003.000000 -824.000000 804.000000
-1003.000000 -822.000000 804.000000
-1003.000000 -820.000000 804.000000
-1003.000000 -818.000000 804.000000
-1003.000000 -816.000000 804.000000
-1003.000000 -814.000000 804.000000
-1003.000000 -812.000000 804.000000
-1003.000000 -810.000000 804.000000
-1003.000000 -808.000000 804.000000
-1003.000000 -806.000000 804.000000
-1003.000000 -804.000000 804.000000
-1003.000000 -802.000000 804.000000
-1003.000000 -800.000000 804.000000
-1003.000000 -798.000000 804.000000
-1003.000000 -796.000000 804.000000
-1003.000000 -794.000000 804.000000
-1003.000000 -792.000000 804.000000
-1003.000000 -790.000000 804.000000
-1003.000000 -788.000000 804.000000
-1003.000000 -786.000000 804.000000
-1003.000000 -784.000000 804.000000
-1003.000000 -782.000000 804.000000
-1003.000000 -780.000000 804.000000
-1003.000000 -778.000000 804.000000
-1003.000000 -776.000000 804.000000
-1003.000000 -774.000000 804.000000
-1003.000000 -772.000000 804.000000
-1003.000000 -770.000000 804.000000
-1003.000000 -768.000000 804.000000
-1003.000000 -766.000000 804.000000
-1003.000000 -764.000000 804.000000
-1003.000000 -762.000000 804.000000
-1003.000000 -760.000000 804.000000
-1003.000000 -758.000000 804.000000
-1003.000000 -756.000000 804.000000
-1003.000000 -754.000000 804.000000
-1003.000000 -752.000000 804.000000
-1003.000000 -750.000000 804.000000
-1003.000000 -748.000000 804.000000
-1003.000000 -746.000000 804.000000
-1003.000000 -744.000000 804.000000
-1003.000000 -742.000000 804.000000
-1003.000000 -740.000000 804.000000
-1003.000000 -738.000000 804.000000
-1003.000000 -736.000000 804.000000
-1003.000000 -734.000000 804.000000
-1003.000000 -732.000000 804.000000
-1003.000000 -730.000000 804.000000
-1003.000000 -728.000000 804.000000
-1003.000000 -726.000000 804.000000
-1003.000000 -724.000000 804.000000
-1003.000000 -722.000000 804.000000
-1003.000000 -720.000000 804.000000
-1003.000000 -718.000000 804.000000
-1003.000000 -716.000000 804.000000
-1003.000000 -714.000000 804.000000
-1003.000000 -712.000000 804.000000
-1003.000000 -710.000000 804.000000
-1003.000000 -708.000000 804.000000
-1003.000000 -706.000000 804.000000
-1003.000000 -704.000000 804.000000
-1003.000000 -702.000000 804.000000
-1003.000000 -700.000000 804.000000
-1003.000000 -698.000000 804.000000
-1003.000000 -696.000000 804.000000
-1003.000000 -694.000000 804.000000
-1003.000000 -692.000000 804.000000
-1003.000000 -690.000000 804.000000
-1003.000000 -688.000000 804.000000
-1003.000000 -686.000000 804.000000
-1003.000000 -684.000000 804.000000
-1003.000000 -682.000000 804.000000
-1003.000000 -680.000000 804.000000
-1003.000000 -678.000000 804.000000
-1003.000000 -676.000000 804.000000
-1003.000000 -674.000000 804.000000
-1003.000000 -672.000000 804.000000
-1003.000000 -670.000000 804.000000
-1003.000000 -668.000000 804.000000
-1003.000000 -666.000000 804.000000
-1003.000000 -664.000000 804.000000
-1003.000000 -662.000000 804.000000
-1003.000000 -660.000000 804.000000
-1003.000000 -658.000000 804.000000
-1003.000000 -656.000000 804.000000
-1003.000000 -654.000000 804.000000
-1003.000000 -652.000000 804.000000
-1003.000000 -650.000000 804.000000
-1003.000000 -648.000000 804.000000
-1003.000000 -646.000000 804.000000
-1003.000000 -644.000000 804.000000
-1003.000000 -642.000000 804.000000
-1003.000000 -640.000000 804.000000
-1003.000000 -638.000000 804.000000
-1003.000000 -636.000000 804.000000
-1003.000000 -634.000000 804.000000
-1003.000000 -632.000000 804.000000
-1003.000000 -630.000000 804.000000
-1003.000000 -628.000000 804.000000
-1003.000000 -626.000000 804.000000
-1003.000000 -624.000000 804.000000
-1003.000000 -622.000000 804.000000
-1003.000000 -620.000000 804.000000
-1003.000000 -618.000000 804.000000
-1003.000000 -616.000000 804.000000
-1003.000000 -614.000000 804.000000
-1003.000000 -612.000000 804.000000
-1003.000000 -610.000000 804.000000
-1003.000000 -608.000000 804.000000
-1003.000000 -606.000000 804.000000
-1003.000000 -604.000000 804.000000
-1003.000000 -602.000000 804.000000
-1003.000000 -600.000000 804.000000
-1003.000000 -598.000000 804.000000
-1003.000000 -596.000000 804.000000
-1003.000000 -594.000000 804.000000
-1003.000000 -592.000000 804.000000
-1003.000000 -590.000000 804.000000
-1003.000000 -588.000000 804.000000
-1003.000000 -586.000000 804.000000
-1003.000000 -584.000000 804.000000
-1003.000000 -582.000000 804.000000
-1003.000000 -580.000000 804.000000
-1003.000000 -578.000000 804.000000
-1003.000000 -576.000000 804.000000
-1003.000000 -574.000000 804.000000
-1003.000000 -572.000000 804.000000
-1003.000000 -570.000000 804.000000
-1003.000000 -568.000000 804.000000
-1003.000000 -566.000000 804.000000
-1003.000000 -564.000000 804.000000
-1003.000000 -562.000000 804.000000
-1003.000000 -560.000000 804.000000
-1003.000000 -558.000000 804.000000
-1003.000000 -556.000000 804.000000
-1003.000000 -554.000000 804.000000
-1003.000000 -552.000000 804.000000
-1003.000000 -550.000000 804.000000
-1003.000000 -548.000000 804.000000
-1003.000000 -546.000000 804.000000
-1003.000000 -544.000000 804.000000
-1003.000000 -542.000000 804.000000
-1003.000000 -540.000000 804.000000
-1003.000000 -538.000000 804.000000
-1003.000000 -536.000000 804.000000
-1003.000000 -534.000000 804.000000
-1003.000000 -532.000000 804.000000
-1003.000000 -530.000000 804.000000
-1003.000000 -528.000000 804.000000
-1003.000000 -526.000000 804.000000
-1003.000000 -524.000000 804.000000
-1003.000000 -522.000000 804.000000
-1003.000000 -520.000000 804.000000
-1003.000000 -518.000000 804.000000
-1003.000000 -516.000000 804.000000
-1003.000000 -512.000000 804.000000
-1003.000000 -512.000000 804.000000
-1001.687486 -510.490925 804.000000
-1000.374971 -508.981851 804.000000
-999.062457 -507.472776 804.000000
-997.749942 -505.963702 804.000000
-996.437428 -504.454627 804.000000
-995.124914 -502.945553 804.000000
-993.812399 -501.436478 804.000000
-992.499885 -499.927404 804.000000
-991.187370 -498.418329 804.000000
-989.874856 -496.909255 804.000000
-988.562342 -495.400180 804.000000
-987.249827 -493.891106 804.000000
-985.937313 -492.382031 804.000000
-984.624798 -490.872957 804.000000
-983.312284 -489.363882 804.000000
-981.999770 -487.854807 804.000000
-980.687255 -486.345733 804.000000
-979.374741 -484.836658 804.000000
-978.062226 -483.327584 804.000000
-976.749712 -481.818509 804.000000
-975.437198 -480.309435 804.000000
-974.124683 -478.800360 804.000000
-972.812169 -477.291286 804.000000
-971.499654 -475.782211 804.000000
-970.187140 -474.273137 804.000000
-968.874626 -472.764062 804.000000
-967.562111 -471.254988 804.000000
-966.249597 -469.745913 804.000000
-964.937082 -468.236839 804.000000
-963.624568 -466.727764 804.000000
-962.312053 -465.218690 804.000000
-960.999539 -463.709615 804.000000
-959.687025 -462.200540 804.000000
-958.374510 -460.691466 804.000000
-957.061996 -459.182391 804.000000
-955.749481 -457.673317 804.000000
-954.436967 -456.164242 804.000000
-953.124453 -454.655168 804.000000
-951.811938 -453.146093 804.000000
-950.499424 -451.637019 804.000000
-949.186909 -450.127944 804.000000
-947.874395 -448.618870 804.000000
-946.561881 -447.109795 804.000000
-945.249366 -445.600721 804.000000
-943.936852 -444.091646 804.000000
-942.624337 -442.582572 804.000000
-941.311823 -441.073497 804.000000
-939.999309 -439.564422 804.000000
-938.686794 -438.055348 804.000000
-937.374280 -436.546273 804.000000
-936.061765 -435.037199 804.000000
-934.749251 -433.528124 804.000000
-933.436737 -432.019050 804.000000
-932.124222 -430.509975 804.000000
-930.811708 -429.000901 804.000000
-929.499193 -427.491826 804.000000
-928.186679 -425.982752 804.000000
-926.874165 -424.473677 804.000000
-925.561650 -422.964603 804.000000
-924.249136 -421.455528 804.000000
-922.936621 -419.946454 804.000000
-921.624107 -418.437379 804.000000
-920.311593 -416.928305 804.000000
-918.999078 -415.419230 804.000000
-917.686564 -413.910155 804.000000
-916.374049 -412.401081 804.000000
-915.061535 -410.892006 804.000000
-913.749021 -409.382932 804.000000
-912.436506 -407.873857 804.000000
-911.123992 -406.364783 804.000000
-909.811477 -404.855708 804.000000
-908.498963 -403.346634 804.000000
-907.186449 -401.837559 804.000000
-905.873934 -400.328485 804.000000
-904.561420 -398.819410 804.000000
-903.248905 -397.310336 804.000000
-901.936391 -395.801261 804.000000
-900.623877 -394.292187 804.000000
-899.311362 -392.783112 804.000000
-897.998848 -391.274037 804.000000
-896.686333 -389.764963 804.000000
-895.373819 -388.255888 804.000000
-894.061305 -386.746814 804.000000
-892.748790 -385.237739 804.000000
-891.436276 -383.728665 804.000000
-890.123761 -382.219590 804.000000
-888.811247 -380.710516 804.000000
-887.498733 -379.201441 804.000000
-886.186218 -377.692367 804.000000
-884.873704 -376.183292 804.000000
-883.561189 -374.674218 804.000000
-882.248675 -373.165143 804.000000
-880.936160 -371.656069 804.000000
-879.623646 -370.146994 804.000000
-878.311132 -368.637920 804.000000
-876.998617 -367.128845 804.000000
-875.686103 -365.619770 804.000000
-874.373588 -364.110696 804.000000
-873.061074 -362.601621 804.000000
-871.748560 -361.092547 804.000000
-870.436045 -359.583472 804.000000
-869.123531 -358.074398 804.000000
-867.811016 -356.565323 804.000000
-866.498502 -355.056249 804.000000
-865.185988 -353.547174 804.000000
-863.873473 -352.038100 804.000000
-862.560959 -350.529025 804.000000
-861.248444 -349.019951 804.000000
-859.935930 -347.510876 804.000000
-858.623416 -346.001802 804.000000
-857.310901 -344.492727 804.000000
-855.998387 -342.983652 804.000000
-854.685872 -341.474578 804.000000
-853.373358 -339.965503 804.000000
-852.060844 -338.456429 804.000000
-850.748329 -336.947354 804.000000
-849.435815 -335.438280 804.000000
-848.123300 -333.929205 804.000000
-846.810786 -332.420131 804.000000
-845.498272 -330.911056 804.000000
-844.185757 -329.401982 804.000000
-842.873243 -327.892907 804.000000
-841.560728 -326.383833 804.000000
-840.248214 -324.874758 804.000000
-838.935700 -323.365684 804.000000
-837.623185 -321.856609 804.000000
-836.310671 -320.347535 804.000000
-834.998156 -318.838460 804.000000
-833.685642 -317.329385 804.000000
-832.373128 -315.820311 804.000000
-831.060613 -314.311236 804.000000
-829.748099 -312.802162 804.000000
-828.435584 -311.293087 804.000000
-827.123070 -309.784013 804.000000
-825.810556 -308.274938 804.000000
-824.498041 -306.765864 804.000000
-823.185527 -305.256789 804.000000
-821.873012 -303.747715 804.000000
-820.560498 -302.238640 804.000000
-819.247984 -300.729566 804.000000
-817.935469 -299.220491 804.000000
-816.622955 -297.711417 804.000000
-815.310440 -296.202342 804.000000
-813.997926 -294.693267 804.000000
-812.685412 -293.184193 804.000000
-811.372897 -291.675118 804.000000
-810.060383 -290.166044 804.000000
-808.747868 -288.656969 804.000000
-807.435354 -287.147895 804.000000
-806.122840 -285.638820 804.000000
-804.810325 -284.129746 804.000000
-803.497811 -282.620671 804.000000
-802.185296 -281.111597 804.000000
-800.872782 -279.602522 804.000000
-799.560267 -278.093448 804.000000
-798.247753 -276.584373 804.000000
-796.000000 -274.000000 804.000000
-796.000000 -274.000000 804.000000
-795.751931 -274.000000 802.015444
-795.503861 -274.000000 800.030888
-795.255792 -274.000000 798.046333
-795.007722 -274.000000 796.061777
-794.759653 -274.000000 794.077221
-794.511583 -274.000000 792.092665
-794.263514 -274.000000 790.108110
-794.015444 -274.000000 788.123554
-793.767375 -274.000000 786.138998
-793.519305 -274.000000 784.154442
-793.271236 -274.000000 782.169887
-793.023166 -274.000000 780.185331
-792.775097 -274.000000 778.200775
-792.527027 -274.000000 776.216219
-792.278958 -274.000000 774.231664
-792.000000 -274.000000 772.000000
-792.000000 -274.000000 772.000000
-790.236431 -274.943305 772.000000
-788.472861 -275.886609 772.000000
-786.709292 -276.829914 772.000000
-784.945723 -277.773218 772.000000
-783.182154 -278.716523 772.000000
-781.418584 -279.659827 772.000000
-779.655015 -280.603132 772.000000
-777.891446 -281.546436 772.000000
-776.127876 -282.489741 772.000000
-774.364307 -283.433045 772.000000
-772.600738 -284.376350 772.000000
-770.837169 -285.319654 772.000000
-769.073599 -286.262959 772.000000
-767.310030 -287.206263 772.000000
-765.546461 -288.149568 772.000000
-763.782891 -289.092872 772.000000
-762.019322 -290.036177 772.000000
-760.255753 -290.979481 772.000000
-758.492184 -291.922786 772.000000
-756.728614 -292.866090 772.000000
-754.965045 -293.809395 772.000000
-753.201476 -294.752699 772.000000
-751.437906 -295.696004 772.000000
-749.674337 -296.639308 772.000000
-747.910768 -297.582613 772.000000
-746.147199 -298.525917 772.000000
-744.383629 -299.469222 772.000000
-742.620060 -300.412526 772.000000
-740.856491 -301.355831 772.000000
-739.092921 -302.299135 772.000000
-737.329352 -303.242440 772.000000
-735.565783 -304.185744 772.000000
-733.802214 -305.129049 772.000000
-732.038644 -306.072353 772.000000
-730.275075 -307.015658 772.000000
-728.511506 -307.958962 772.000000
-726.747936 -308.902267 772.000000
-724.984367 -309.845571 772.000000
-723.220798 -310.788876 772.000000
-721.457229 -311.732180 772.000000
-719.693659 -312.675485 772.000000
-717.930090 -313.618789 772.000000
-716.166521 -314.562094 772.000000
-714.402952 -315.505398 772.000000
-712.639382 -316.448703 772.000000
-710.875813 -317.392007 772.000000
-709.112244 -318.335312 772.000000
-707.348674 -319.278616 772.000000
-705.585105 -320.221921 772.000000
-703.821536 -321.165225 772.000000
-702.057967 -322.108530 772.000000
-700.294397 -323.051834 772.000000
-698.530828 -323.995139 772.000000
-696.767259 -324.938443 772.000000
-695.003689 -325.881748 772.000000
-693.240120 -326.825052 772.000000
-691.476551 -327.768357 772.000000
-689.712982 -328.711661 772.000000
-687.949412 -329.654966 772.000000
-686.185843 -330.598270 772.000000
-684.422274 -331.541575 772.000000
-682.658704 -332.484879 772.000000
-680.895135 -333.428184 772.000000
-679.131566 -334.371488 772.000000
-677.367997 -335.314793 772.000000
-675.604427 -336.258097 772.000000
-673.840858 -337.201402 772.000000
-672.077289 -338.144706 772.000000
-670.313719 -339.088011 772.000000
-668.550150 -340.031315 772.000000
-666.786581 -340.974620 772.000000
-665.023012 -341.917924 772.000000
-663.259442 -342.861229 772.000000
-661.495873 -343.804533 772.000000
-659.732304 -344.747838 772.000000
-657.968734 -345.691142 772.000000
-656.205165 -346.634447 772.000000
-654.441596 -347.577751 772.000000
-652.678027 -348.521056 772.000000
-650.914457 -349.464360 772.000000
-649.150888 -350.407665 772.000000
-647.387319 -351.350969 772.000000
-645.623749 -352.294274 772.000000
-643.860180 -353.237578 772.000000
-642.096611 -354.180883 772.000000
-640.333042 -355.124187 772.000000
-638.569472 -356.067492 772.000000
-636.805903 -357.010796 772.000000
-635.042334 -357.954101 772.000000
-633.278764 -358.897405 772.000000
-631.515195 -359.840710 772.000000
-629.751626 -360.784014 772.000000
-627.988057 -361.727319 772.000000
-626.224487 -362.670623 772.000000
-624.460918 -363.613928 772.000000
-622.697349 -364.557232 772.000000
-620.933779 -365.500537 772.000000
-619.170210 -366.443841 772.000000
-617.406641 -367.387146 772.000000
-615.643072 -368.330450 772.000000
-613.879502 -369.273755 772.000000
-612.115933 -370.217059 772.000000
-610.352364 -371.160364 772.000000
-608.588794 -372.103668 772.000000
-606.825225 -373.046973 772.000000
-605.061656 -373.990277 772.000000
-603.298087 -374.933582 772.000000
-601.534517 -375.876886 772.000000
-599.770948 -376.820191 772.000000
-598.007379 -377.763495 772.000000
-596.243809 -378.706800 772.000000
-594.480240 -379.650104 772.000000
-592.716671 -380.593409 772.000000
-590.953102 -381.536713 772.000000
-589.189532 -382.480018 772.000000
-587.425963 -383.423322 772.000000
-585.662394 -384.366627 772.000000
-583.898825 -385.309931 772.000000
-582.135255 -386.253236 772.000000
-580.371686 -387.196540 772.000000
-577.000000 -389.000000 772.000000
-577.000000 -389.000000 772.000000
-576.045073 -390.757303 772.000000
-575.090146 -392.514606 772.000000
-574.135219 -394.271910 772.000000
-573.180292 -396.029213 772.000000
-572.225366 -397.786516 772.000000
-571.270439 -399.543819 772.000000
-570.315512 -401.301123 772.000000
-569.360585 -403.058426 772.000000
-568.405658 -404.815729 772.000000
-567.450731 -406.573032 772.000000
-566.495804 -408.330335 772.000000
-565.540877 -410.087639 772.000000
-564.585950 -411.844942 772.000000
-563.631023 -413.602245 772.000000
-562.676097 -415.359548 772.000000
-561.721170 -417.116852 772.000000
-560.766243 -418.874155 772.000000
-559.811316 -420.631458 772.000000
-558.856389 -422.388761 772.000000
-557.901462 -424.146065 772.000000
-556.946535 -425.903368 772.000000
-555.991608 -427.660671 772.000000
-555.036681 -429.417974 772.000000
-554.081755 -431.175277 772.000000
-553.126828 -432.932581 772.000000
-552.171901 -434.689884 772.000000
-551.216974 -436.447187 772.000000
-550.262047 -438.204490 772.000000
-549.307120 -439.961794 772.000000
-548.352193 -441.719097 772.000000
-547.397266 -443.476400 772.000000
-546.442339 -445.233703 772.000000
-545.487413 -446.991006 772.000000
-544.532486 -448.748310 772.000000
-543.577559 -450.505613 772.000000
-542.622632 -452.262916 772.000000
-541.667705 -454.020219 772.000000
-540.712778 -455.777523 772.000000
-539.757851 -457.534826 772.000000
-538.802924 -459.292129 772.000000
-537.847997 -461.049432 772.000000
-536.893070 -462.806735 772.000000
-535.938144 -464.564039 772.000000
-534.983217 -466.321342 772.000000
-534.028290 -468.078645 772.000000
-533.073363 -469.835948 772.000000
-532.118436 -471.593252 772.000000
-531.163509 -473.350555 772.000000
-530.208582 -475.107858 772.000000
-529.253655 -476.865161 772.000000
-528.298728 -478.622465 772.000000
-527.343802 -480.379768 772.000000
-526.388875 -482.137071 772.000000
-525.433948 -483.894374 772.000000
-524.479021 -485.651677 772.000000
-523.524094 -487.408981 772.000000
-522.569167 -489.166284 772.000000
-521.614240 -490.923587 772.000000
-520.659313 -492.680890 772.000000
-519.704386 -494.438194 772.000000
-518.749459 -496.195497 772.000000
-517.794533 -497.952800 772.000000
-516.839606 -499.710103 772.000000
-515.884679 -501.467406 772.000000
-514.929752 -503.224710 772.000000
-513.974825 -504.982013 772.000000
-513.019898 -506.739316 772.000000
-512.064971 -508.496619 772.000000
-511.110044 -510.253923 772.000000
-510.155117 -512.011226 772.000000
-509.200191 -513.768529 772.000000
-508.245264 -515.525832 772.000000
-507.290337 -517.283135 772.000000
-506.335410 -519.040439 772.000000
-505.380483 -520.797742 772.000000
-504.425556 -522.555045 772.000000
-503.470629 -524.312348 772.000000
-502.515702 -526.069652 772.000000
-501.560775 -527.826955 772.000000
-500.605848 -529.584258 772.000000
-499.650922 -531.341561 772.000000
-498.695995 -533.098865 772.000000
-497.741068 -534.856168 772.000000
-496.786141 -536.613471 772.000000
-495.831214 -538.370774 772.000000
-494.876287 -540.128077 772.000000
-493.921360 -541.885381 772.000000
-492.966433 -543.642684 772.000000
-492.011506 -545.399987 772.000000
-491.056580 -547.157290 772.000000
-490.101653 -548.914594 772.000000
-489.146726 -550.671897 772.000000
-488.191799 -552.429200 772.000000
-487.236872 -554.186503 772.000000
-486.281945 -555.943806 772.000000
-485.327018 -557.701110 772.000000
-484.372091 -559.458413 772.000000
-483.417164 -561.215716 772.000000
-482.462238 -562.973019 772.000000
-481.507311 -564.730323 772.000000
-480.552384 -566.487626 772.000000
-479.597457 -568.244929 772.000000
-478.642530 -570.002232 772.000000
-477.687603 -571.759535 772.000000
-476.732676 -573.516839 772.000000
-475.777749 -575.274142 772.000000
-474.822822 -577.031445 772.000000
-473.867895 -578.788748 772.000000
-472.912969 -580.546052 772.000000
-471.958042 -582.303355 772.000000
-471.003115 -584.060658 772.000000
-470.048188 -585.817961 772.000000
-469.093261 -587.575265 772.000000
-468.138334 -589.332568 772.000000
-467.183407 -591.089871 772.000000
-466.228480 -592.847174 772.000000
-465.273553 -594.604477 772.000000
-464.318627 -596.361781 772.000000
-463.363700 -598.119084 772.000000
-462.408773 -599.876387 772.000000
-461.453846 -601.633690 772.000000
-460.498919 -603.390994 772.000000
-459.543992 -605.148297 772.000000
-458.589065 -606.905600 772.000000
-457.634138 -608.662903 772.000000
-456.679211 -610.420206 772.000000
-455.724284 -612.177510 772.000000
-454.769358 -613.934813 772.000000
-453.814431 -615.692116 772.000000
-452.859504 -617.449419 772.000000
-451.904577 -619.206723 772.000000
-450.949650 -620.964026 772.000000
-449.994723 -622.721329 772.000000
-449.039796 -624.478632 772.000000
-448.084869 -626.235935 772.000000
-447.129942 -627.993239 772.000000
-446.175016 -629.750542 772.000000
-445.220089 -631.507845 772.000000
-444.265162 -633.265148 772.000000
-443.310235 -635.022452 772.000000
-442.355308 -636.779755 772.000000
-441.400381 -638.537058 772.000000
-440.445454 -640.294361 772.000000
-439.490527 -642.051665 772.000000
-438.535600 -643.808968 772.000000
-437.580673 -645.566271 772.000000
-436.625747 -647.323574 772.000000
-435.670820 -649.080877 772.000000
-434.715893 -650.838181 772.000000
-433.760966 -652.595484 772.000000
-432.806039 -654.352787 772.000000
-431.851112 -656.110090 772.000000
-430.896185 -657.867394 772.000000
-429.941258 -659.624697 772.000000
-428.986331 -661.382000 772.000000
-428.031405 -663.139303 772.000000
-427.076478 -664.896606 772.000000
-426.121551 -666.653910 772.000000
-425.166624 -668.411213 772.000000
-424.211697 -670.168516 772.000000
-423.256770 -671.925819 772.000000
-422.301843 -673.683123 772.000000
-421.346916 -675.440426 772.000000
-420.391989 -677.197729 772.000000
-419.437063 -678.955032 772.000000
-418.482136 -680.712335 772.000000
-417.527209 -682.469639 772.000000
-416.572282 -684.226942 772.000000
-415.617355 -685.984245 772.000000
-414.662428 -687.741548 772.000000
-413.707501 -689.498852 772.000000
-412.752574 -691.256155 772.000000
-411.797647 -693.013458 772.000000
-410.842720 -694.770761 772.000000
-409.887794 -696.528065 772.000000
-408.932867 -698.285368 772.000000
-407.977940 -700.042671 772.000000
-407.023013 -701.799974 772.000000
-406.068086 -703.557277 772.000000
-405.113159 -705.314581 772.000000
-404.158232 -707.071884 772.000000
-403.203305 -708.829187 772.000000
-402.248378 -710.586490 772.000000
-401.293452 -712.343794 772.000000
-400.338525 -714.101097 772.000000
-399.383598 -715.858400 772.000000
-398.428671 -717.615703 772.000000
-397.473744 -719.373006 772.000000
-396.518817 -721.130310 772.000000
-395.563890 -722.887613 772.000000
-394.608963 -724.644916 772.000000
-393.654036 -726.402219 772.000000
-392.699109 -728.159523 772.000000
-391.744183 -729.916826 772.000000
-390.789256 -731.674129 772.000000
-389.834329 -733.431432 772.000000
-388.879402 -735.188735 772.000000
-387.924475 -736.946039 772.000000
-386.969548 -738.703342 772.000000
-386.014621 -740.460645 772.000000
-385.059694 -742.217948 772.000000
-384.104767 -743.975252 772.000000
-383.149841 -745.732555 772.000000
-382.194914 -747.489858 772.000000
-381.239987 -749.247161 772.000000
-380.285060 -751.004465 772.000000
-379.330133 -752.761768 772.000000
-378.375206 -754.519071 772.000000
-377.420279 -756.276374 772.000000
-376.465352 -758.033677 772.000000
-375.510425 -759.790981 772.000000
-374.555499 -761.548284 772.000000
-373.600572 -763.305587 772.000000
-372.645645 -765.062890 772.000000
-371.690718 -766.820194 772.000000
-370.735791 -768.577497 772.000000
-369.780864 -770.334800 772.000000
-368.825937 -772.092103 772.000000
-367.871010 -773.849406 772.000000
-366.916083 -775.606710 772.000000
-365.961156 -777.364013 772.000000
-365.006230 -779.121316 772.000000
-364.051303 -780.878619 772.000000
-363.096376 -782.635923 772.000000
-362.141449 -784.393226 772.000000
-361.186522 -786.150529 772.000000
-360.231595 -787.907832 772.000000
-359.276668 -789.665135 772.000000
-358.321741 -791.422439 772.000000
-357.366814 -793.179742 772.000000
-356.411888 -794.937045 772.000000
-355.456961 -796.694348 772.000000
-354.502034 -798.451652 772.000000
-353.547107 -800.208955 772.000000
-352.592180 -801.966258 772.000000
-351.637253 -803.723561 772.000000
-350.682326 -805.480865 772.000000
-349.727399 -807.238168 772.000000
-348.772472 -808.995471 772.000000
-347.817545 -810.752774 772.000000
-346.862619 -812.510077 772.000000
-345.907692 -814.267381 772.000000
-344.952765 -816.024684 772.000000
-343.997838 -817.781987 772.000000
-343.042911 -819.539290 772.000000
-342.087984 -821.296594 772.000000
-341.133057 -823.053897 772.000000
-340.178130 -824.811200 772.000000
-339.223203 -826.568503 772.000000
-338.268277 -828.325806 772.000000
-337.313350 -830.083110 772.000000
-336.000000 -832.500000 772.000000
-336.000000 -832.500000 772.000000
-335.968525 -834.496716 771.889836
-335.937049 -836.493431 771.779673
-335.905574 -838.490147 771.669509
-335.874099 -840.486862 771.559346
-335.842623 -842.483578 771.449182
-335.811148 -844.480294 771.339018
-335.779673 -846.477009 771.228855
-335.748197 -848.473725 771.118691
-335.716722 -850.470441 771.008527
-335.685247 -852.467156 770.898364
-335.653771 -854.463872 770.788200
-335.622296 -856.460587 770.678037
-335.590821 -858.457303 770.567873
-335.559346 -860.454019 770.457709
-335.527870 -862.450734 770.347546
-335.496395 -864.447450 770.237382
-335.464920 -866.444166 770.127218
-335.433444 -868.440881 770.017055
-335.401969 -870.437597 769.906891
-335.370494 -872.434312 769.796728
-335.339018 -874.431028 769.686564
-335.307543 -876.427744 769.576400
-335.276068 -878.424459 769.466237
-335.244592 -880.421175 769.356073
-335.213117 -882.417891 769.245909
-335.181642 -884.414606 769.135746
-335.150166 -886.411322 769.025582
-335.118691 -888.408037 768.915419
-335.087216 -890.404753 768.805255
-335.055740 -892.401469 768.695091
-335.024265 -894.398184 768.584928
-334.992790 -896.394900 768.474764
-334.961314 -898.391616 768.364601
-334.929839 -900.388331 768.254437
-334.898364 -902.385047 768.144273
-334.866888 -904.381762 768.034110
-334.835413 -906.378478 767.923946
-334.803938 -908.375194 767.813782
-334.772463 -910.371909 767.703619
-334.740987 -912.368625 767.593455
-334.709512 -914.365341 767.483292
-334.678037 -916.362056 767.373128
-334.646561 -918.358772 767.262964
-334.615086 -920.355487 767.152801
-334.583611 -922.352203 767.042637
-334.552135 -924.348919 766.932473
-334.520660 -926.345634 766.822310
-334.489185 -928.342350 766.712146
-334.457709 -930.339066 766.601983
-334.426234 -932.335781 766.491819
-334.394759 -934.332497 766.381655
-334.363283 -936.329212 766.271492
-334.331808 -938.325928 766.161328
-334.300333 -940.322644 766.051164
-334.268857 -942.319359 765.941001
-334.237382 -944.316075 765.830837
-334.205907 -946.312791 765.720674
-334.174431 -948.309506 765.610510
-334.142956 -950.306222 765.500346
-334.111481 -952.302937 765.390183
-334.080005 -954.299653 765.280019
-334.048530 -956.296369 765.169856
-334.017055 -958.293084 765.059692
-333.985580 -960.289800 764.949528
-333.954104 -962.286516 764.839365
-333.922629 -964.283231 764.729201
-333.891154 -966.279947 764.619037
-333.859678 -968.276662 764.508874
-333.828203 -970.273378 764.398710
-333.796728 -972.270094 764.288547
-333.765252 -974.266809 764.178383
-333.733777 -976.263525 764.068219
-333.702302 -978.260241 763.958056
-333.670826 -980.256956 763.847892
-333.639351 -982.253672 763.737728
-333.607876 -984.250387 763.627565
-333.576400 -986.247103 763.517401
-333.544925 -988.243819 763.407238
-333.513450 -990.240534 763.297074
-333.481974 -992.237250 763.186910
-333.450499 -994.233965 763.076747
-333.419024 -996.230681 762.966583
-333.387548 -998.227397 762.856419
-333.356073 -1000.224112 762.746256
-333.324598 -1002.220828 762.636092
-333.293122 -1004.217544 762.525929
-333.261647 -1006.214259 762.415765
-333.230172 -1008.210975 762.305601
-333.198697 -1010.207690 762.195438
-333.167221 -1012.204406 762.085274
-333.135746 -1014.201122 761.975111
-333.104271 -1016.197837 761.864947
-333.072795 -1018.194553 761.754783
-333.041320 -1020.191269 761.644620
-333.009845 -1022.187984 761.534456
-332.978369 -1024.184700 761.424292
-332.946894 -1026.181415 761.314129
-332.915419 -1028.178131 761.203965
-332.883943 -1030.174847 761.093802
-332.852468 -1032.171562 760.983638
-332.820993 -1034.168278 760.873474
-332.789517 -1036.164994 760.763311
-332.758042 -1038.161709 760.653147
-332.726567 -1040.158425 760.542983
-332.695091 -1042.155140 760.432820
-332.663616 -1044.151856 760.322656
-332.632141 -1046.148572 760.212493
-332.600665 -1048.145287 760.102329
-332.569190 -1050.142003 759.992165
-332.537715 -1052.138719 759.882002
-332.506239 -1054.135434 759.771838
-332.474764 -1056.132150 759.661674
-332.443289 -1058.128865 759.551511
-332.411814 -1060.125581 759.441347
-332.380338 -1062.122297 759.331184
-332.348863 -1064.119012 759.221020
-332.317388 -1066.115728 759.110856
-332.285912 -1068.112444 759.000693
-332.254437 -1070.109159 758.890529
-332.222962 -1072.105875 758.780366
-332.191486 -1074.102590 758.670202
-332.160011 -1076.099306 758.560038
-332.128536 -1078.096022 758.449875
-332.097060 -1080.092737 758.339711
-332.065585 -1082.089453 758.229547
-332.034110 -1084.086169 758.119384
-332.002634 -1086.082884 758.009220
-331.971159 -1088.079600 757.899057
-331.939684 -1090.076315 757.788893
-331.908208 -1092.073031 757.678729
-331.876733 -1094.069747 757.568566
-331.845258 -1096.066462 757.458402
-331.813782 -1098.063178 757.348238
-331.782307 -1100.059894 757.238075
-331.750832 -1102.056609 757.127911
-331.719356 -1104.053325 757.017748
-331.687881 -1106.050040 756.907584
-331.656406 -1108.046756 756.797420
-331.624930 -1110.043472 756.687257
-331.593455 -1112.040187 756.577093
-331.561980 -1114.036903 756.466929
-331.530505 -1116.033619 756.356766
-331.499029 -1118.030334 756.246602
-331.467554 -1120.027050 756.136439
-331.436079 -1122.023765 756.026275
-331.404603 -1124.020481 755.916111
-331.373128 -1126.017197 755.805948
-331.341653 -1128.013912 755.695784
-331.310177 -1130.010628 755.585621
-331.278702 -1132.007344 755.475457
-331.247227 -1134.004059 755.365293
-331.215751 -1136.000775 755.255130
-331.184276 -1137.997490 755.144966
-331.152801 -1139.994206 755.034802
-331.121325 -1141.990922 754.924639
-331.089850 -1143.987637 754.814475
-331.058375 -1145.984353 754.704312
-331.026899 -1147.981069 754.594148
-330.995424 -1149.977784 754.483984
-330.963949 -1151.974500 754.373821
-330.932473 -1153.971215 754.263657
-330.900998 -1155.967931 754.153493
-330.869523 -1157.964647 754.043330
-330.838047 -1159.961362 753.933166
-330.806572 -1161.958078 753.823003
-330.775097 -1163.954793 753.712839
-330.743622 -1165.951509 753.602675
-330.712146 -1167.948225 753.492512
-330.680671 -1169.944940 753.382348
-330.649196 -1171.941656 753.272184
-330.617720 -1173.938372 753.162021
-330.586245 -1175.935087 753.051857
-330.554770 -1177.931803 752.941694
-330.523294 -1179.928518 752.831530
-330.491819 -1181.925234 752.721366
-330.460344 -1183.921950 752.611203
-330.428868 -1185.918665 752.501039
-330.397393 -1187.915381 752.390876
-330.365918 -1189.912097 752.280712
-330.334442 -1191.908812 752.170548
-330.302967 -1193.905528 752.060385
-330.271492 -1195.902243 751.950221
-330.240016 -1197.898959 751.840057
-330.208541 -1199.895675 751.729894
-330.177066 -1201.892390 751.619730
-330.145590 -1203.889106 751.509567
-330.114115 -1205.885822 751.399403
-330.082640 -1207.882537 751.289239
-330.051164 -1209.879253 751.179076
-330.019689 -1211.875968 751.068912
-329.988214 -1213.872684 750.958748
-329.956739 -1215.869400 750.848585
-329.925263 -1217.866115 750.738421
-329.893788 -1219.862831 750.628258
-329.862313 -1221.859547 750.518094
-329.830837 -1223.856262 750.407930
-329.799362 -1225.852978 750.297767
-329.767887 -1227.849693 750.187603
-329.736411 -1229.846409 750.077439
-329.704936 -1231.843125 749.967276
-329.673461 -1233.839840 749.857112
-329.641985 -1235.836556 749.746949
-329.610510 -1237.833272 749.636785
-329.579035 -1239.829987 749.526621
-329.547559 -1241.826703 749.416458
-329.516084 -1243.823418 749.306294
-329.484609 -1245.820134 749.196131
-329.453133 -1247.816850 749.085967
-329.421658 -1249.813565 748.975803
-329.390183 -1251.810281 748.865640
-329.358707 -1253.806997 748.755476
-329.327232 -1255.803712 748.645312
-329.295757 -1257.800428 748.535149
-329.264281 -1259.797143 748.424985
-329.232806 -1261.793859 748.314822
-329.201331 -1263.790575 748.204658
-329.169856 -1265.787290 748.094494
-329.138380 -1267.784006 747.984331
-329.106905 -1269.780722 747.874167
-329.075430 -1271.777437 747.764003
-329.043954 -1273.774153 747.653840
-329.012479 -1275.770868 747.543676
-328.981004 -1277.767584 747.433513
-328.949528 -1279.764300 747.323349
-328.918053 -1281.761015 747.213185
-328.886578 -1283.757731 747.103022
-328.855102 -1285.754447 746.992858
-328.823627 -1287.751162 746.882695
-328.792152 -1289.747878 746.772531
-328.760676 -1291.744593 746.662367
-328.729201 -1293.741309 746.552204
-328.697726 -1295.738025 746.442040
-328.666250 -1297.734740 746.331876
-328.634775 -1299.731456 746.221713
-328.603300 -1301.728172 746.111549
-328.571824 -1303.724887 746.001386
-328.540349 -1305.721603 745.891222
-328.508874 -1307.718318 745.781058
-328.477398 -1309.715034 745.670895
-328.445923 -1311.711750 745.560731
-328.414448 -1313.708465 745.450567
-328.382973 -1315.705181 745.340404
-328.351497 -1317.701896 745.230240
-328.320022 -1319.698612 745.120077
-328.288547 -1321.695328 745.009913
-328.257071 -1323.692043 744.899749
-328.225596 -1325.688759 744.789586
-328.194121 -1327.685475 744.679422
-328.162645 -1329.682190 744.569258
-328.131170 -1331.678906 744.459095
-328.099695 -1333.675621 744.348931
-328.068219 -1335.672337 744.238768
-328.036744 -1337.669053 744.128604
-328.000000 -1340.000000 744.000000
-328.000000 -1340.000000 744.000000
-328.872872 -1338.254257 743.563564
-329.745743 -1336.508514 743.127128
-330.618615 -1334.762771 742.690693
-331.491486 -1333.017028 742.254257
-332.364358 -1331.271284 741.817821
-333.237229 -1329.525541 741.381385
-334.110101 -1327.779798 740.944950
-334.982972 -1326.034055 740.508514
-336.000000 -1324.000000 740.000000
-336.000000 -1324.000000 740.000000
-337.809637 -1324.000000 739.148406
-339.619275 -1324.000000 738.296812
-341.428912 -1324.000000 737.445218
-344.500000 -1324.000000 736.000000
-344.500000 -1324.000000 736.000000
-344.288689 -1324.000000 734.011194
-344.077379 -1324.000000 732.022389
-343.866068 -1324.000000 730.033583
-343.654758 -1324.000000 728.044777
-343.443447 -1324.000000 726.055972
-343.232136 -1324.000000 724.067166
-343.020826 -1324.000000 722.078361
-342.809515 -1324.000000 720.089555
-342.598205 -1324.000000 718.100749
-342.386894 -1324.000000 716.111944
-342.175583 -1324.000000 714.123138
-341.964273 -1324.000000 712.134332
-341.752962 -1324.000000 710.145527
-341.541652 -1324.000000 708.156721
-341.330341 -1324.000000 706.167916
-341.119030 -1324.000000 704.179110
-340.907720 -1324.000000 702.190304
-340.696409 -1324.000000 700.201499
-340.485099 -1324.000000 698.212693
-340.273788 -1324.000000 696.223887
-340.062477 -1324.000000 694.235082
-339.851167 -1324.000000 692.246276
-339.639856 -1324.000000 690.257471
-339.428546 -1324.000000 688.268665
-339.217235 -1324.000000 686.279859
-339.005924 -1324.000000 684.291054
-338.794614 -1324.000000 682.302248
-338.583303 -1324.000000 680.313442
-338.371993 -1324.000000 678.324637
-338.160682 -1324.000000 676.335831
-337.949371 -1324.000000 674.347025
-337.738061 -1324.000000 672.358220
-337.526750 -1324.000000 670.369414
-337.315440 -1324.000000 668.380609
-337.104129 -1324.000000 666.391803
-336.892818 -1324.000000 664.402997
-336.681508 -1324.000000 662.414192
-336.470197 -1324.000000 660.425386
-336.258887 -1324.000000 658.436580
-336.000000 -1324.000000 656.000000
-336.000000 -1324.000000 656.000000
-334.427363 -1322.764357 656.000000
-332.854727 -1321.528714 656.000000
-331.282090 -1320.293071 656.000000
-329.709453 -1319.057428 656.000000
-328.136817 -1317.821784 656.000000
-326.564180 -1316.586141 656.000000
-324.991543 -1315.350498 656.000000
-323.418907 -1314.114855 656.000000
-321.846270 -1312.879212 656.000000
-320.273633 -1311.643569 656.000000
-318.700997 -1310.407926 656.000000
-317.128360 -1309.172283 656.000000
-315.555723 -1307.936640 656.000000
-313.983087 -1306.700997 656.000000
-312.410450 -1305.465353 656.000000
-310.837813 -1304.229710 656.000000
-309.265176 -1302.994067 656.000000
-307.692540 -1301.758424 656.000000
-306.119903 -1300.522781 656.000000
-304.547266 -1299.287138 656.000000
-302.974630 -1298.051495 656.000000
-301.401993 -1296.815852 656.000000
-299.829356 -1295.580209 656.000000
-298.256720 -1294.344566 656.000000
-296.684083 -1293.108922 656.000000
-295.111446 -1291.873279 656.000000
-293.538810 -1290.637636 656.000000
-291.966173 -1289.401993 656.000000
-290.393536 -1288.166350 656.000000
-288.820900 -1286.930707 656.000000
-287.248263 -1285.695064 656.000000
-285.675626 -1284.459421 656.000000
-284.102990 -1283.223778 656.000000
-282.530353 -1281.988134 656.000000
-280.000000 -1280.000000 656.000000
-280.000000 -1280.000000 656.000000
-280.000000 -1278.978922 657.719709
-280.000000 -1277.957845 659.439419
-280.000000 -1276.936767 661.159128
-280.000000 -1275.915690 662.878838
-280.000000 -1274.894612 664.598547
-280.000000 -1273.873535 666.318257
-280.000000 -1272.852457 668.037966
-280.000000 -1271.831380 669.757676
-280.000000 -1270.810302 671.477385
-280.000000 -1269.789225 673.197095
-280.000000 -1268.768147 674.916804
-280.000000 -1267.747070 676.636514
-280.000000 -1266.725992 678.356223
-280.000000 -1265.704915 680.075933
-280.000000 -1264.683837 681.795642
-280.000000 -1263.662760 683.515352
-280.000000 -1262.641682 685.235061
-280.000000 -1261.620605 686.954771
